# .PCD v0.7 - Point Cloud Data file format
VERSION 0.7
FIELDS x y z rgb
SIZE 4 4 4 4
TYPE F F F U
COUNT 1 1 1 1
WIDTH 862
HEIGHT 1
VIEWPOINT 0 0 0 1 0 0 0
POINTS 862
DATA ascii
-1.9291378 0.55997795 2.0646498 7364886
-1.849595 0.55997819 2.0526202 4997647
-2.0283153 0.55997688 2.1660852 8679962
-1.9503641 0.55997717 2.1461298 8153880
-2.1272137 0.55997586 2.2719548 6049810
-2.0490766 0.55997592 2.2476733 8614169
-1.9499242 0.55997574 2.2483575 8679962
-1.8499106 0.55997568 2.2483571 8153880
-2.2212331 0.55997485 2.3653634 6773012
-2.1494603 0.55997509 2.3459349 4997648
-2.0509179 0.55997485 2.3452594 8154137
-1.9512155 0.55997473 2.3459275 8679962
-1.8515179 0.55997467 2.3452582 8679962
-1.7494929 0.55997449 2.3459322 8154136
-1.6486168 0.55997437 2.3459313 4866319
0.6492644 0.55997121 2.3452539 4997648
0.75011224 0.55997086 2.3465979 6707476
0.84979683 0.55997097 2.345243 7825175
0.9506672 0.55997092 2.345252 8482841
1.0503728 0.55997086 2.3459163 8614169
1.1501178 0.55997068 2.3452501 4866063
1.2509313 0.55997074 2.3465955 3945485
2.2212095 0.55996907 2.3653381 6247187
-2.2461503 0.55997425 2.437556 4866063
-2.1495986 0.55997413 2.4367676 4932111
-2.0496349 0.55997384 2.4367592 4997648
-1.9496596 0.55997378 2.4359882 5128976
-1.8497384 0.55997342 2.4367588 4997648
-1.7485697 0.55997342 2.4367588 4997648
-1.6485722 0.55997306 2.4359863 5063440
0.54913098 0.55997056 2.4367442 4866063
0.650298 0.5599702 2.436744 6575892
0.75024396 0.5599702 2.4359725 7890967
0.85019195 0.55997002 2.4367421 8351257
0.95015454 0.55997008 2.4367478 8614170
1.0488607 0.5599699 2.435971 8614169
1.148844 0.55996943 2.4367406 6312723
1.2500108 0.55996943 2.4367394 5589266
1.349944 0.55996907 2.4359696 5655314
1.4499042 0.55996913 2.4367399 5589266
1.5498668 0.55996895 2.4367454 5589265
1.6485596 0.55996889 2.4359679 5655314
1.7485553 0.55996883 2.4367383 6575893
1.8497221 0.55996865 2.4367371 8614169
1.9496417 0.55996871 2.4359665 8679962
2.0496149 0.55996847 2.4367352 8614170
2.1495771 0.55996829 2.4367423 7562262
2.2461257 0.55996799 2.4375305 5457937
1.0485232 0.55996871 2.5348833 4405773
1.7488339 0.55996746 2.5340323 6970389
1.8490074 0.5599674 2.5348721 8614170
1.9504893 0.55996734 2.5348864 8614170
2.0507188 0.55996722 2.534878 7364886
1.6485687 0.55996662 2.6412594 7101973
1.7503937 0.55996662 2.641259 8614169
1.8509008 0.55996621 2.6402824 8614170
1.9500908 0.55996591 2.6412663 7167509
1.4496503 0.55996543 2.7569618 4471566
1.5504429 0.55996537 2.7558982 6838805
1.6512804 0.55996531 2.7569618 8417049
1.74939 0.55996513 2.7569609 8482585
1.8488493 0.55996507 2.7558773 7628055
1.9496576 0.55996513 2.7569485 5326352
-4.5150404 0.55995011 4.7802505 4207360
-4.4441595 0.55994999 4.7802496 4207360
-4.3449268 0.55994987 4.7802482 4207360
-4.2456951 0.55994976 4.7802472 4273152
-4.146462 0.55994958 4.7802463 4273152
-4.0472293 0.5599494 4.7802444 4338944
-3.9479976 0.55994934 4.7802439 4338944
-3.8487647 0.55994922 4.7802429 4404736
-3.7495322 0.55994904 4.780242 4470272
-3.6502995 0.55994892 4.7802401 4470528
-3.5510678 0.55994886 4.7802391 4536064
-3.4518356 0.55994862 4.7802386 4470528
-3.3526034 0.55994844 4.7802367 4470528
-3.253371 0.55994838 4.7802358 4470528
-3.1541388 0.55994827 4.7802353 4470528
-3.0549068 0.55994815 4.7802343 4470528
-2.9556751 0.55994803 4.7802324 4470528
-2.8564429 0.55994791 4.7802315 4470528
-2.7501233 0.55994773 4.7802305 4470528
-2.6438029 0.55994755 4.7802286 4470528
-2.5445714 0.55994749 4.7802277 4470528
-2.4453397 0.55994737 4.7802272 4470528
-2.3461077 0.55994719 4.7802253 4470528
-2.246876 0.55994701 4.7802243 4470528
-2.1476448 0.55994695 4.7802238 4470528
-2.0484128 0.55994672 4.7802229 4470528
-1.9491814 0.55994666 4.780221 4470528
-1.84995 0.55994654 4.78022 4470528
-1.7507187 0.55994648 4.7802196 4470528
-1.651487 0.55994624 4.7802176 4470272
-1.5522557 0.55994612 4.7802167 4470272
-1.4530243 0.559946 4.7802157 4470272
-1.3537931 0.55994588 4.7802148 4470272
-1.254562 0.55994576 4.7802129 4470272
-1.1553308 0.55994564 4.7802124 4470272
-1.0560998 0.55994552 4.7802114 4470272
-0.94978064 0.55994529 4.7802095 4470272
-0.84346181 0.55994517 4.7802086 4470272
-0.74423075 0.55994511 4.7802086 4470272
-0.64499986 0.55994493 4.7802062 4470272
-0.54576904 0.55994481 4.7802052 4470272
-0.44653818 0.55994469 4.7802048 4470272
-0.34730735 0.55994451 4.7802033 4470272
-0.24807665 0.55994445 4.7802019 4470272
-0.14884594 0.55994421 4.780201 4470272
-0.049615301 0.55994415 4.7801995 4470272
0.04961529 0.55994397 4.7801986 4470272
0.14884584 0.55994391 4.7801971 4470272
0.24807636 0.55994374 4.7801971 4470272
0.34730676 0.55994362 4.7801948 4470272
0.4465372 0.5599435 4.7801938 4470272
0.54576761 0.55994326 4.7801933 4470272
0.64499795 0.55994326 4.7801919 4470272
0.74422818 0.55994308 4.7801905 4470272
0.84345829 0.55994302 4.7801895 4470272
0.94977647 0.55994278 4.780189 4470272
1.0560944 0.55994272 4.7801867 4470272
1.1553246 0.55994254 4.7801857 4470272
1.2545546 0.55994242 4.7801852 4470272
1.3537846 0.55994219 4.7801828 4470272
1.4530144 0.55994219 4.7801828 4470272
1.5522443 0.55994207 4.7801819 4470272
1.6514741 0.55994189 4.7801809 4470528
1.7507039 0.55994177 4.780179 4470528
1.8499336 0.55994159 4.7801781 4470528
1.9491634 0.55994147 4.7801776 4470528
2.048393 0.55994129 4.7801757 4470528
2.1476226 0.55994129 4.7801747 4470528
2.2468524 0.55994111 4.7801738 4470528
2.346082 0.55994099 4.7801728 4470528
2.4453111 0.55994081 4.7801709 4470528
2.5445406 0.5599407 4.7801704 4470528
2.64377 0.55994058 4.7801695 4470528
2.7500868 0.55994034 4.7801676 4470528
2.8564041 0.55994034 4.7801666 4470528
2.9556334 0.55994022 4.7801661 4470528
3.0548627 0.55993998 4.7801642 4470528
3.1540916 0.55993986 4.7801633 4470528
3.2533209 0.5599398 4.7801623 4470528
3.3525503 0.55993968 4.7801614 4470528
3.4517787 0.55993944 4.78016 4536064
3.551008 0.55993938 4.780159 4536064
3.6502368 0.55993927 4.780158 4470528
3.7494657 0.55993909 4.7801566 4470272
3.8486943 0.55993891 4.7801552 4404736
3.9479234 0.55993891 4.7801552 4404480
4.0471516 0.55993867 4.7801528 4338944
4.1463804 0.55993855 4.7801518 4273152
4.2456093 0.55993843 4.7801514 4273152
4.3448377 0.55993831 4.7801504 4207616
4.444066 0.55993819 4.7801485 4207360
4.5149436 0.55993801 4.7801476 4207360
-3.749171 0.55994105 5.4729524 4207360
-3.6517887 0.55994087 5.4729505 5062144
-3.5544071 0.55994081 5.47295 4075776
-2.0449939 0.55993885 5.4729309 4536064
-1.9476128 0.55993867 5.472929 5916672
-0.34894595 0.55993652 5.472908 4404480
-0.24345063 0.5599364 5.4729066 5259264
1.2497088 0.55993444 5.4728875 4470272
1.3470883 0.55993432 5.4728866 5390592
1.4444679 0.5599342 5.4728851 4075776
2.953845 0.55993223 5.4728656 4536064
3.051224 0.55993205 5.4728642 5653760
4.7553458 0.55992979 5.4728427 4930816
4.8527236 0.55992967 5.4728408 4338944
-1.9556001 0.55993676 5.6362805 4404480
3.0420084 0.55993015 5.6362138 4207360
-1.9468502 0.55993479 5.8096848 4075776
-1.4080353 0.55999625 0.062458482 8092539
-1.5432025 0.55999601 0.02495045 5460819
-1.4932995 0.55999351 0.11161239 4737096
-1.6282734 0.55999434 0.074062414 7960953
-1.7651724 0.55999506 0.037920471 6710886
-1.8531436 0.55999315 0.088481911 6974058
-1.9891276 0.55999368 0.051255822 7697781
-2.1278975 0.55999386 0.017192429 4671303
-2.078073 0.55999285 0.10251909 5658198
-2.2202914 0.55999297 0.068365969 7960953
-2.3530343 0.55999321 0.030128067 5987163
-2.3027456 0.55999166 0.11621202 4276545
-2.4336605 0.55999207 0.075982153 7631988
-2.5721953 0.55999243 0.041675214 6908265
-2.6577768 0.55999142 0.089963369 4539717
-1.8609947 0.55995798 2.0571482 4931855
-1.7136855 0.55995381 2.3142095 4866062
-1.6627694 0.55995226 2.4023845 7036181
-2.0129068 0.55995816 2.0273955 7299350
-1.9622217 0.55995691 2.1130056 7890967
-1.913698 0.55995536 2.2013896 8285465
-1.8607526 0.55995387 2.288764 8614169
-1.8112407 0.55995256 2.376637 8416793
-2.1532741 0.55995852 1.9926491 7167765
-2.1023602 0.55995703 2.0808194 8614426
-2.0517011 0.55995566 2.1666644 8679962
-2.0026712 0.55995423 2.2534571 8614426
-1.9517587 0.5599528 2.3416264 8679962
-1.9010576 0.55995136 2.4275436 5720850
-2.2295206 0.55995756 2.0374134 8416793
-2.1809869 0.55995613 2.1254702 8482841
-2.1289203 0.5599547 2.2116275 8219928
-2.0805719 0.55995321 2.2973588 7496471
-2.0302551 0.55995178 2.3844945 8153880
-2.3622105 0.55995792 1.9999771 4076812
-2.3125279 0.55995649 2.0860147 6115346
-2.1614552 0.55995214 2.3454969 4668943
-2.1115592 0.55995077 2.4340401 5063440
-2.4502909 0.55995697 2.0504816 4076812
-2.2497194 0.55995107 2.3953192 6839060
-2.3947942 0.55995136 2.3636239 5589521
-2.4680536 0.55995029 2.4090984 6707476
-2.5992353 0.55995089 2.3647473 5457936
-4.0633674 0.5599882 0.091976725 4868682
-2.7607346 0.55995083 2.3441916 6773012
-2.7105386 0.55994952 2.4311147 5918482
-1.4107744 0.55991119 4.7491059 6902784
-4.2002521 0.5599885 0.058265343 6645093
-2.9006679 0.55995125 2.3087225 6838804
-2.8517325 0.55994976 2.3934615 8614426
-2.8000791 0.55994833 2.4829082 7299093
-1.4979647 0.55991131 4.7377529 5719552
-4.3111515 0.55998909 0.011402723 3947580
-4.2612405 0.55998766 0.097831808 5263440
-2.9636464 0.55995041 2.3448336 7890968
-2.9137425 0.55994904 2.4312508 8417049
-2.8638387 0.55994755 2.5176675 4405774
-1.6107849 0.55991203 4.6875463 3944448
-1.5608875 0.55991054 4.7739515 4667392
-4.415535 0.5599879 0.064952768 6052956
-3.1113234 0.55995047 2.3141468 4339981
-3.063282 0.55994916 2.4019635 7496471
-3.0118451 0.55994767 2.491035 4734478
-1.711864 0.55991077 4.7421603 5193472
-4.5686898 0.55998802 0.037647445 5460819
-3.2186012 0.55994928 2.3755193 6181139
-3.1684923 0.55994779 2.4622898 4405774
-1.8687006 0.55991089 4.7130704 4799232
-4.6428471 0.55998701 0.080174111 5921370
-3.2908223 0.55994821 2.4213865 5392144
-1.9419974 0.55990994 4.7570653 4996352
-1.6018097 0.55990034 5.3461485 4667648
-4.7695065 0.55998749 0.039302256 5131854
-2.0677435 0.5599103 4.7177491 4667648
-1.6677738 0.55989897 5.4103489 4338944
-4.85151 0.55998653 0.083777227 5592405
-2.1519525 0.5599094 4.758379 4930560
-1.7996184 0.55989939 5.3684893 4930560
-4.9823513 0.55998677 0.052257713 5197647
-2.2850893 0.55990976 4.7228584 4470528
-1.9343075 0.55989987 5.3302774 4404736
-1.886035 0.55989844 5.4138651 5587968
-5.0732212 0.5599857 0.099130541 5000268
-2.3717868 0.55990857 4.7769279 4207360
-2.0226316 0.55989861 5.3815255 6048000
-1.9732242 0.55989724 5.4670801 6376704
-1.9238161 0.55989575 5.5526338 4667648
-5.2157106 0.559986 0.066461869 5131854
-2.5132627 0.55990875 4.7459831 4536064
-1.9667915 0.55989319 5.6922474 5259264
-1.916194 0.55989182 5.7798619 4141568
-2.6617253 0.55990893 4.713511 3944448
-2.2642138 0.55989772 5.401834 4470528
-1.9600414 0.55988914 5.9285321 5259264
-1.9116515 0.55988777 6.0123239 3944448
-2.7645421 0.55990773 4.771451 4076032
-1.9671255 0.55988514 6.1522307 4864768
-2.9199708 0.55990773 4.7505455 4207360
-1.9745778 0.55988085 6.3875451 4733440
-1.9345824 0.55987978 6.4567995 4404736
-1.9898925 0.55987668 6.622479 4010240
-3.6053977 0.55989498 5.3738108 4536064
-3.5580137 0.55989361 5.4558544 4338688
-6.7709103 0.55994779 2.0047383 5589521
-6.725081 0.55994642 2.0840857 6575892
-6.674159 0.55994499 2.1722486 6444308
-6.6232381 0.55994356 2.2604113 6444308
-6.5723166 0.55994213 2.3485734 6312979
-6.5213962 0.55994064 2.4367352 5260816
-7.0422449 0.55994636 2.0529346 4011276
-6.8467236 0.5599407 2.3914452 4603150
-6.7991652 0.55993932 2.4737847 5918226
-6.7463226 0.55993783 2.5652726 6641684
-6.6934805 0.55993634 2.6567597 5721106
-6.9888878 0.55993474 2.7038894 4142861
-9.995101 0.56000584 -1.8966178 5855577
-9.9853163 0.5599941 -1.2240334 5855577
-9.987113 0.55998164 -0.51325011 5855577
-9.9760475 0.55996764 0.28617206 5855577
-9.991231 0.55995303 1.1162314 5855577
-9.9502392 0.55995196 1.1871949 4868682
-9.9936066 0.55993658 2.0562418 5855577
-9.9576969 0.55993563 2.1184072 4868682
-1.3690398 0.5599975 0.075556479 6118749
-1.4580489 0.55999756 0.024293235 5395026
-1.5079981 0.55999726 0.11089692 4802889
-1.5930731 0.55999744 0.061727766 8158332
-1.6781123 0.55999756 0.012786356 4210752
-1.7282381 0.5599972 0.099183969 5987163
-1.8155279 0.55999738 0.048622668 7566195
-0.66971052 0.56003302 -2.1622241 4208396
-1.9532373 0.5599969 0.084868625 7237230
-0.73889679 0.5600341 -2.2164226 5589521
-2.0390785 0.55999732 0.034653682 6447714
-0.87821716 0.56003267 -2.181834 8351257
-2.177825 0.55999678 0.069713943 7763574
-0.96989787 0.56003398 -2.2339454 7562262
-1.0200062 0.56003231 -2.1476033 8285464
-2.2702971 0.55999732 0.018668123 4802889
-2.3194976 0.55999559 0.10487004 5460819
-1.0530269 0.56003445 -2.2817597 4997647
-1.1027235 0.5600329 -2.1953456 8679962
-1.1526458 0.56003171 -2.1081917 7693591
-2.4019186 0.55999655 0.055871818 7829367
-1.1833024 0.56003362 -2.2419853 8548377
-1.2340987 0.56003219 -2.1555588 8614169
-1.2829415 0.560031 -2.0689793 5392144
-2.5330944 0.55999529 0.096216664 6184542
-1.271145 0.56003445 -2.2928202 6444307
-1.3222853 0.56003302 -2.2069089 7496470
-2.6210349 0.55999631 0.045562807 6579300
-1.4567188 0.56003207 -2.1678867 7035925
-1.657322 0.56002653 -1.8230962 5720849
-1.5360309 0.56003278 -2.2135484 6444307
-1.7346691 0.56002736 -1.8679072 5984017
-1.7853101 0.56002569 -1.7817231 5523729
-1.6712011 0.56003201 -2.175736 7299094
-1.8201653 0.56002772 -1.9159914 7496214
-1.8703791 0.56002641 -1.8306994 8614169
-1.9191556 0.56002492 -1.744509 4208397
-1.7626919 0.56003273 -2.2280848 5260560
-1.8133221 0.56003141 -2.1443012 4931855
-1.9123464 0.56002849 -1.9708229 8416793
-1.9610665 0.560027 -1.8844362 8679962
-2.0115438 0.56002581 -1.7989819 6904596
-1.7117929 0.56003767 -2.547559 6246930
-1.7624502 0.56003636 -2.4619694 4339980
-1.9139596 0.56003207 -2.2016912 6970389
-1.9624807 0.56003082 -2.1132843 6312723
-2.0131624 0.56002939 -2.027653 8614169
-2.0626304 0.5600279 -1.9398307 8614169
-2.1139784 0.56002641 -1.8530064 7628055
-1.8035531 0.56003845 -2.5992002 5326352
-1.8544643 0.56003696 -2.5110056 8548633
-1.9032534 0.56003565 -2.426486 8482841
-1.9520422 0.56003428 -2.3419671 8022552
-2.0029523 0.56003284 -2.2537735 7956760
-2.0519788 0.56003141 -2.1669576 8614170
-2.1026342 0.56003004 -2.0810907 8614426
-2.1535432 0.56002861 -1.9928985 8285464
-1.9301376 0.56003761 -2.5568039 8285465
-1.9802427 0.56003624 -2.4720094 8679962
-2.0305562 0.56003481 -2.3848484 8679962
-2.0808699 0.56003338 -2.297688 8679962
-2.1292145 0.56003195 -2.2119331 8679962
-2.1812768 0.56003058 -2.1257529 8679962
-2.2298057 0.56002915 -2.0376737 7562006
-2.0125213 0.56003833 -2.6065314 4668942
-2.0622001 0.5600369 -2.5204699 8219928
-2.1118784 0.56003553 -2.4344087 8285464
-2.1617711 0.56003416 -2.34584 8482841
-2.2134752 0.56003255 -2.2584074 8614170
-2.2631531 0.56003124 -2.1723475 8614170
-2.3128304 0.5600298 -2.0862877 5983761
-2.1496677 0.56003755 -2.5695851 4274445
-2.2009568 0.56003612 -2.4832313 4077069
-2.3012726 0.56003338 -2.3094475 5392144
-2.3525496 0.56003189 -2.2231162 7430678
-2.3993309 0.56003046 -2.1370766 5063183
-2.4940937 0.56003129 -2.1925619 4997647
-1.4615452 0.56007004 -4.5959682 5390592
-4.1609287 0.55999362 0.080473132 6118749
-1.5527667 0.56007069 -4.6449189 4667648
-1.6017007 0.56006926 -4.5601444 4536064
-4.2492275 0.5599944 0.026486063 5263440
-4.3008661 0.55999291 0.11594617 4144959
-1.6611459 0.5600698 -4.6024261 5522176
-4.3610859 0.55999351 0.075027414 6381921
-1.7637932 0.56007051 -4.6544161 4010240
-1.8117718 0.56006908 -4.5666661 4601856
-4.4600096 0.55999422 0.021246316 4408131
-4.5120788 0.55999279 0.10682467 4671303
-1.5744851 0.56007963 -5.2250624 4207360
-1.9193425 0.56006986 -4.6276131 4996352
-4.6188397 0.55999357 0.049136244 5658198
-1.6926559 0.56007892 -5.1913886 5325056
-2.0419161 0.56006908 -4.5863085 5193472
-4.7422485 0.55999273 0.091910124 5395026
-1.7698646 0.56007951 -5.2361984 4798976
-2.1175692 0.56006968 -4.6338115 4799232
-4.8187866 0.55999333 0.045966554 5329233
-1.9008828 0.56007874 -5.1958108 5785344
-2.253252 0.56006879 -4.5853391 5127680
-4.9522347 0.55999249 0.090592071 5395026
-1.934932 0.56008083 -5.3320007 4930560
-1.9832102 0.5600794 -5.2483592 6902784
-2.0347064 0.56007797 -5.1591425 4273152
-2.3372409 0.56006944 -4.6350036 4667648
-2.3855176 0.56006807 -4.5513659 4141568
-5.0339022 0.55999321 0.036931224 4605510
-5.0853825 0.55999184 0.12612078 4079166
-1.9244639 0.56008428 -5.5545025 3944448
-1.9738779 0.56008291 -5.4688926 5390848
-2.0232918 0.56008154 -5.3832827 4273152
-2.1221197 0.56007868 -5.2120647 5193728
-2.4745955 0.56006873 -4.6013994 5259264
-5.1721044 0.55999249 0.072033495 5460819
-1.9674696 0.56008637 -5.6942115 5193472
-2.0147011 0.560085 -5.6123824 4009984
-2.2171187 0.56007934 -5.261692 4141568
-2.2643492 0.56007797 -5.1798644 4470528
-2.615195 0.56006807 -4.5720205 4798976
-1.964202 0.56008995 -5.9246712 5127680
-2.3617496 0.56007874 -5.2359118 4404480
-2.7143428 0.56006873 -4.6250353 4864768
-1.9678576 0.56009358 -6.154521 4798976
-2.8681307 0.56006807 -4.5947671 4996352
-1.9353373 0.56009829 -6.4593201 4273152
-1.9753406 0.56009722 -6.3900127 4667648
-3.0226352 0.56006759 -4.5755267 4798976
-1.9906888 0.56010085 -6.6251307 3944448
-3.1368475 0.56006843 -4.6393437 4141568
-3.1853793 0.56006706 -4.5552602 4207360
-3.3071795 0.56006789 -4.6202707 4733440
-3.4831634 0.56006747 -4.6069551 4536064
-3.3163233 0.56007695 -5.2045226 3944448
-3.6652915 0.56006712 -4.5998979 4601600
-3.5114472 0.56007659 -5.1933703 4075776
-3.8541141 0.56006688 -4.5996594 4207360
-3.6582744 0.56007779 -5.2860193 5127936
-3.7056565 0.56007642 -5.2039223 5127936
-4.0588632 0.56006652 -4.5919437 4273152
-6.0707235 0.56002808 -2.2883275 4011276
-6.2640996 0.56002951 -2.4026618 4931855
-6.3132091 0.56002814 -2.3175683 5721105
-6.362318 0.56002671 -2.232475 4537358
-6.9481454 0.56002569 -2.2179418 4077069
-6.9956784 0.56002438 -2.1355786 5392144
-7.043211 0.56002301 -2.0532165 6444307
-7.0960245 0.56002152 -1.9617027 5326352
-3.5920997 0.56012934 -8.5924444 4075776
-7.1877041 0.56002772 -2.3619864 4142861
-7.2371006 0.56002629 -2.2763929 4800271
-7.2864962 0.56002486 -2.1907997 4537358
-3.1558473 0.56015104 -9.9533138 4342338
-9.948554 0.55995905 1.8172858 4079166
-9.9942427 0.55995774 1.8964548 5855577
-3.5404141 0.56015038 -9.9433479 4342338
-9.9848547 0.55996823 1.2239769 5855577
-9.9435387 0.55998051 0.43781132 4342338
-9.9870701 0.55997926 0.51324838 5855577
-4.3908191 0.56014967 -9.9657784 5855577
-9.9764757 0.55999172 -0.2861841 5855577
-4.9055629 0.56014836 -9.9312925 4342338
-9.9511948 0.56000572 -1.1873089 4868682
-9.9921503 0.56000465 -1.1163344 5855577
-5.4300222 0.56014824 -9.9679232 5855577
-9.9592018 0.56002027 -2.118727 5855577
-9.9950819 0.56001925 -2.0565448 5855577
-1.6498851 0.560031 -1.8519602 5128975
-1.735642 0.56003058 -1.8670937 6641683
-1.8351561 0.56003249 -1.9706312 5918225
-1.2494308 0.56003463 -2.0523269 4471565
-1.9293303 0.5600338 -2.0648563 5918225
2.0273108 0.56004041 -2.1659822 8807680
1.9497966 0.56003994 -2.1461825 7821824
1.8495678 0.56003964 -2.1457856 6309888
1.7509366 0.56003982 -2.1457751 4666624
-0.75016654 0.56003666 -2.1465573 4668686
-0.85038722 0.56003654 -2.1457744 6181138
-0.94983625 0.56003648 -2.1455717 7693591
-1.0500568 0.56003636 -2.1463575 8548377
-1.1503288 0.56003606 -2.1455705 8614169
-1.2497277 0.5600363 -2.1465552 8548633
-1.3499705 0.56003588 -2.1457705 5655313
-1.4502095 0.56003594 -2.146167 5063440
-1.5504298 0.56003582 -2.1457698 5063440
-1.6514641 0.56003577 -2.1463549 5129232
-1.7509235 0.56003559 -2.1457598 5063184
-1.8495531 0.56003541 -2.1457696 5063440
-1.9497805 0.56003547 -2.1461647 6378515
-2.0272927 0.56003553 -2.1659632 8614169
2.1274664 0.56004226 -2.2722249 7558912
2.0493176 0.56004208 -2.247937 7690240
1.9501534 0.56004196 -2.2486224 6310144
1.8501281 0.56004167 -2.2486222 4798208
-0.85007024 0.56003851 -2.2486098 4603150
-0.95005476 0.56003839 -2.2472708 6247187
-1.0500594 0.56003815 -2.2486086 7430678
-1.1500837 0.56003821 -2.2486079 8219672
-1.2501076 0.56003791 -2.2486074 8417049
-1.3500764 0.56003797 -2.2472677 4471565
-1.9501377 0.5600372 -2.2486041 5918226
-2.0493 0.56003708 -2.2479167 8614169
-2.1274474 0.56003731 -2.2722051 8679962
-1.9491104 0.56003875 -2.3455286 8022552
-2.0499928 0.56003881 -2.3455372 8679962
-2.149704 0.56003863 -2.3462017 8614169
-2.221487 0.56003898 -2.3656335 7364886
-1.8499596 0.56004095 -2.4370511 7693590
-1.9498929 0.56004053 -2.4362798 8679962
-2.0498784 0.56004024 -2.4370494 8614170
-2.1498537 0.56004041 -2.4370561 6970388
-1.6500549 0.56004268 -2.5352182 5260816
-1.7490673 0.56004262 -2.5343707 7562262
-1.8492546 0.56004238 -2.5352099 8548633
-1.949515 0.56004202 -2.5343702 8548633
-2.0497224 0.5600419 -2.5360715 8219672
-2.1511869 0.56004179 -2.5343828 6115603
4.311986 0.56008577 -4.5509796 4076032
4.2512536 0.56008583 -4.5509801 4076032
4.1500325 0.56008571 -4.5509791 4076032
4.0488114 0.56008554 -4.5509777 4076032
3.9475899 0.56008536 -4.5509763 4076032
3.853117 0.5600853 -4.5509758 4076032
3.7518957 0.56008512 -4.5509744 4141568
3.6506751 0.56008506 -4.5509739 4141568
3.5494542 0.56008494 -4.5509729 4141568
3.4482334 0.56008482 -4.550972 4141568
3.35376 0.5600847 -4.550971 4141568
3.2525396 0.56008458 -4.5509701 4141568
3.1513193 0.56008452 -4.5509696 4141568
3.0500979 0.56008446 -4.5509686 4141824
2.9488773 0.56008428 -4.5509672 4141824
2.847657 0.56008416 -4.5509663 4141824
2.7464359 0.56008399 -4.5509648 4207360
2.6519635 0.56008387 -4.5509644 4207360
2.5507431 0.56008387 -4.5509634 4207360
2.4495223 0.56008369 -4.550962 4207360
2.3483019 0.56008357 -4.550961 4207360
2.2470815 0.56008339 -4.5509601 4207360
2.1526091 0.56008327 -4.5509596 4207360
2.051389 0.56008327 -4.5509591 4207360
1.9501687 0.56008303 -4.5509572 4207360
1.8489487 0.56008297 -4.5509567 4207360
1.7477285 0.56008279 -4.5509558 4207360
1.6532562 0.56008267 -4.5509548 4207616
1.552036 0.56008255 -4.5509539 4273152
1.450816 0.5600825 -4.5509529 4273152
1.3495961 0.56008244 -4.550952 4273152
1.2483761 0.56008226 -4.550951 4273152
1.1539041 0.56008214 -4.5509496 4273152
1.0526842 0.56008196 -4.5509491 4273152
0.95146453 0.5600819 -4.5509486 4273152
0.8502447 0.56008184 -4.5509472 4273152
0.74902493 0.56008166 -4.5509462 4273152
0.64780509 0.56008148 -4.5509448 4273152
0.54658544 0.56008136 -4.5509439 4273152
0.45211384 0.5600813 -4.5509434 4273152
0.35089427 0.56008124 -4.5509424 4273152
0.24967471 0.56008106 -4.5509415 4273152
0.14845519 0.56008101 -4.5509405 4273152
0.047235731 0.56008083 -4.5509396 4273152
-0.04723572 0.56008065 -4.5509381 4273152
-0.1484551 0.56008059 -4.5509377 4273152
-0.24967444 0.56008047 -4.5509367 4273152
-0.35089374 0.56008035 -4.5509353 4273152
-0.45211294 0.56008023 -4.5509348 4273152
-0.54658419 0.56008011 -4.5509334 4273152
-0.64780337 0.56008005 -4.5509324 4273152
-0.74902242 0.56007993 -4.5509315 4273152
-0.85024154 0.56007981 -4.5509305 4273152
-0.95146054 0.56007963 -4.55093 4273152
-1.0526795 0.56007951 -4.5509281 4273152
-1.1538984 0.5600794 -4.5509272 4273152
-1.2483695 0.56007934 -4.5509272 4273152
-1.3495883 0.56007916 -4.5509257 4273152
-1.4508072 0.56007904 -4.5509248 4273152
-1.5520258 0.56007886 -4.5509238 4273152
-1.6532446 0.56007874 -4.5509224 4273152
-1.7477154 0.56007868 -4.5509224 4273152
-1.8489341 0.56007856 -4.550921 4207616
-1.9501526 0.56007844 -4.55092 4207360
-2.0513713 0.56007838 -4.5509191 4207360
-2.1525896 0.56007814 -4.5509181 4207360
-2.2470601 0.56007802 -4.5509167 4207360
-2.3482788 0.56007797 -4.5509162 4207360
-2.4494972 0.56007785 -4.5509152 4207360
-2.5507154 0.56007773 -4.5509143 4207360
-2.6519334 0.56007755 -4.5509129 4207360
-2.7464042 0.56007743 -4.5509114 4207360
-2.8476224 0.56007743 -4.5509119 4207360
-2.9488406 0.56007725 -4.5509105 4141824
-3.0500588 0.56007713 -4.5509095 4207360
-3.1512768 0.56007701 -4.5509081 4207360
-3.2524951 0.56007695 -4.5509081 4141824
-3.3537126 0.56007677 -4.5509062 4141824
-3.4481831 0.56007671 -4.5509057 4141824
-3.5494008 0.56007659 -4.5509043 4141568
-3.650619 0.56007642 -4.5509038 4141568
-3.7518363 0.5600763 -4.5509024 4141568
-3.853054 0.56007618 -4.5509009 4141568
-3.9475238 0.56007606 -4.5509005 4141568
-4.0487418 0.560076 -4.5508995 4141568
-4.1499591 0.56007582 -4.5508986 4141568
-4.2511768 0.5600757 -4.5508976 4076032
-4.3119073 0.56007558 -4.5508966 4076032
4.8490653 0.56009775 -5.1745119 4076032
4.7493205 0.56009758 -5.1745105 4404736
4.6495762 0.56009746 -5.1745095 3944448
3.1534157 0.56009573 -5.1744928 4207360
3.0536721 0.56009561 -5.1744924 4864768
2.953928 0.56009549 -5.1744914 4470272
2.8465123 0.56009537 -5.1744895 4010240
2.7467682 0.56009513 -5.1744885 3944448
1.6495917 0.56009394 -5.1744771 4141568
1.5498487 0.56009388 -5.1744761 4338944
1.4501057 0.5600937 -5.1744742 4536064
1.3503627 0.56009358 -5.1744738 5127936
1.2506198 0.56009352 -5.1744728 4930560
1.1508766 0.56009328 -5.1744714 4404736
1.0511339 0.56009322 -5.1744699 4404736
0.053707454 0.56009203 -5.174459 4404480
-0.053707447 0.56009197 -5.1744585 4536064
-0.15344979 0.56009173 -5.1744571 4667648
-0.25319216 0.56009167 -5.1744566 4865024
-0.35293439 0.56009156 -5.1744542 4996352
-0.45267662 0.56009144 -5.1744537 4798976
-0.55241889 0.56009132 -5.1744523 4470272
-0.65216094 0.56009108 -5.1744504 4470272
-1.6495802 0.56009007 -5.1744409 4141568
-1.7493216 0.56008989 -5.174439 4273152
-1.8490635 0.56008977 -5.174439 4536064
-1.948805 0.56008965 -5.1744375 5062144
-2.0485466 0.56008953 -5.1744361 4667648
-2.1482882 0.56008941 -5.1744351 4207360
-2.2480297 0.56008929 -5.1744347 4141568
-3.5523372 0.56008774 -5.1744194 4076032
-3.6520784 0.56008768 -5.1744189 4667648
-3.7518191 0.5600875 -5.174417 4404480
4.7490191 0.56010032 -5.3202972 4404480
3.0450411 0.56009823 -5.3202777 5061888
1.348964 0.56009614 -5.3202581 5325056
1.2464107 0.56009603 -5.3202567 4207616
-0.25243685 0.56009418 -5.32024 3944448
-0.34710059 0.56009412 -5.3202386 4273152
-1.9484899 0.56009221 -5.3202205 5259264
-3.6524193 0.56009024 -5.3202014 4667648
3.0521438 0.56010085 -5.4745145 4207360
1.3474842 0.56009889 -5.4744949 4536064
-1.9481567 0.56009507 -5.4744573 4470272
-3.6527805 0.56009299 -5.4744372 4010240
1.3542761 0.56010181 -5.6379418 4010240
-1.9561629 0.56009799 -5.6379032 4075776
1.344252 0.56010497 -5.8114495 4141568
-1.9474283 0.56010109 -5.8114095 4009984
0.962116 0.55999917 0.079612687 8026746
1.0084007 0.55999815 0.052944615 7895160
1.1446385 0.5599981 0.089572184 6908265
1.2311296 0.55999917 0.039837968 6908265
2.7569652 0.56000406 0.08310163 7171437
2.835413 0.56000531 0.037286546 6579300
2.9701607 0.56000483 0.076068006 7303023
1.6712449 0.56004673 -2.1757927 5192448
3.1118932 0.56000447 0.10707968 5066061
3.0614295 0.56000614 0.021646284 5066061
1.8133715 0.56004679 -2.1443598 5586944
1.7627392 0.5600481 -2.2281454 5126656
3.2134717 0.56000584 0.051573858 7039851
1.9625373 0.56004679 -2.1133451 5389824
1.9140154 0.56004816 -2.2017548 8347648
3.3540773 0.56000549 0.086722426 6513507
2.1026976 0.56004673 -2.0811534 4732416
2.0520406 0.56004828 -2.1670227 8807680
2.0030127 0.56004959 -2.2538414 6638592
3.4304705 0.56000662 0.040171873 6645093
2.1813445 0.56004798 -2.125819 8413440
2.1292801 0.5600493 -2.2120016 8741888
2.0809336 0.56005073 -2.2977586 4272384
3.5637228 0.56000608 0.080578476 6710886
2.3129036 0.56004757 -2.086354 4075264
2.263226 0.56004918 -2.1724174 8544768
2.2135463 0.56005061 -2.2584798 8216064
3.6989374 0.56000572 0.11418658 4276545
3.6498668 0.56000739 0.026676821 5395026
2.3994093 0.56004882 -2.1371465 4272384
2.3526273 0.56005049 -2.2231898 6244096
3.7926781 0.56000704 0.05960656 6842472
2.4941781 0.56005019 -2.192636 6704384
3.9203534 0.5600065 0.10568764 4868682
3.8708062 0.56000817 0.019851224 4934475
2.6196547 0.56004953 -2.147702 4864000
2.5676229 0.56005126 -2.2378449 4666624
2.6989887 0.56005073 -2.1931937 6507008
2.8616211 0.56005061 -2.1707191 5784064
1.4615991 0.56009048 -4.596137 5390592
2.9990537 0.56005031 -2.1396101 4206848
2.9501262 0.56005192 -2.2243772 5586944
1.6017616 0.56009036 -4.5603166 4536064
1.5528256 0.56009173 -4.6450949 4667648
3.0639906 0.5600512 -2.1723776 5915392
1.6612099 0.56009144 -4.6026034 5522176
3.2124393 0.5600509 -2.1450167 4403712
3.1644068 0.56005263 -2.2328622 4798208
1.8118447 0.56009156 -4.5668497 4601856
1.763864 0.56009305 -4.6546025 4010240
3.3194139 0.56005239 -2.2023706 5784320
1.9194227 0.56009316 -4.6278057 4996352
1.5745494 0.56010252 -5.2252769 5259264
3.4419827 0.5600518 -2.1610718 4732416
2.0420034 0.56009293 -4.586504 5193472
1.6927274 0.56010258 -5.191608 5061888
2.117662 0.56009406 -4.6340132 4799232
2.2533529 0.56009376 -4.5855436 5127680
2.3856273 0.56009388 -4.5515757 4141568
2.3373487 0.56009513 -4.6352162 4667648
2.4747124 0.56009513 -4.6016169 5259264
2.6153219 0.56009525 -4.5722427 4798976
5.4104147 0.56001121 0.045655962 4276545
2.7144783 0.56009662 -4.6252651 4864768
5.5651064 0.56001103 0.077506773 4868682
2.8682778 0.5600968 -4.5950027 4996352
5.7205639 0.56001091 0.098415345 4934475
3.0227945 0.56009716 -4.575768 4798976
2.6736887 0.56010669 -5.1806045 4075776
5.8880439 0.56001067 0.12690549 4342338
3.1855519 0.56009758 -4.5555081 4207360
3.1370177 0.56009883 -4.6395955 4141568
2.7860703 0.56010848 -5.2476277 4601856
6.0071855 0.5600124 0.057303026 4276545
3.307364 0.56009918 -4.6205287 4733440
2.9583116 0.56010878 -5.2252822 5587968
6.1842909 0.56001252 0.072578259 4210752
3.4833641 0.56009972 -4.6072206 4536064
3.1323695 0.56010938 -5.215344 5127680
3.0850444 0.56011075 -5.2973404 4930560
3.0337732 0.56011212 -5.386169 4667392
6.3635507 0.56001294 0.07468237 4210752
3.6655095 0.56010038 -4.6001711 4601856
3.3165181 0.56010997 -5.2048287 4273152
3.0689707 0.56011683 -5.6337276 4010240
3.0162139 0.56011826 -5.7251325 4207360
3.8543501 0.56010109 -4.5999413 4207360
4.0591216 0.56010205 -4.5922351 4273152
6.4118085 0.56005865 -2.1475101 4011276
6.3626986 0.56006032 -2.2326086 4142860
2.9695396 0.56017113 -8.5943823 4010240
7.4406495 0.56005657 -1.9246365 5063439
7.3912544 0.56005818 -2.0102346 6838804
7.3418589 0.56005985 -2.0958335 7496214
7.2869744 0.56006163 -2.1909432 6773012
7.2375784 0.56006324 -2.2765434 5918226
7.1881828 0.56006491 -2.362144 4866319
7.6472726 0.56006217 -2.1714878 4076812
7.6015739 0.5600636 -2.2506821 4734478
7.5501623 0.56006533 -2.3397763 5194768
7.4987507 0.56006706 -2.4288712 4734478
7.4530516 0.56006861 -2.5080669 4208653
3.156106 0.56019706 -9.9541311 5066061
3.5407193 0.56019866 -9.9442062 5066061
3.9532988 0.56020039 -9.9441795 4868682
4.3912363 0.56020284 -9.9667244 5855577
4.9060535 0.56020445 -9.9322872 4342338
12.757463 0.55993956 2.7307971 4011277
5.4305949 0.56020743 -9.968976 5855577
0.86213148 0.56000024 0.093606345 6579300
0.95835161 0.55999869 0.033810519 6316128
1.044735 0.55999875 0.083725542 7434609
1.1809922 0.56000006 0.046697538 7500402
1.269067 0.56000024 0.097593606 5921370
0.74904722 0.55996829 2.4363861 7627799
0.77881712 0.55996984 2.3545659 7496470
0.81948549 0.55996746 2.4940059 4274189
0.86940503 0.55996883 2.4075525 8614169
0.91978896 0.55997068 2.3207486 7036181
0.95220065 0.55996901 2.4552574 8482585
1.0032281 0.55997032 2.3679073 8614169
1.0529082 0.55997163 2.2815027 5852434
1.0329416 0.55996847 2.5030861 6773012
1.0829495 0.5599699 2.4153121 8614169
1.1333991 0.55997109 2.3287325 4668942
1.2221552 0.55997086 2.3798397 6641428
1.3064359 0.5599705 2.4290068 6246931
1.4346455 0.55997151 2.3870804 7036181
2.7847731 0.56000739 0.048902582 7368816
1.5193295 0.55997115 2.4365408 5523729
1.5695403 0.55997252 2.3512802 4208653
2.8699548 0.56000721 0.097513884 5987163
2.9208062 0.56000847 0.011127993 4013373
1.4631143 0.55996692 2.748333 5392144
1.6628287 0.55997235 2.4024699 7036181
3.0127091 0.56000805 0.064745434 7434609
1.5619612 0.55996615 2.8085363 4471566
1.6114618 0.55996752 2.7206829 8219672
1.6627848 0.55996907 2.6339316 7101973
1.7115873 0.55997044 2.5472527 5326352
1.7622468 0.55997181 2.4616854 6378772
1.8113073 0.55997312 2.3767245 6378515
3.1621442 0.56000888 0.035228454 6118749
1.7036433 0.55996728 2.7715223 8416793
1.7526801 0.55996871 2.6847174 8679962
1.8033334 0.55997008 2.5988827 8614426
1.8540353 0.55997145 2.5129626 8614426
1.90113 0.55997276 2.4276364 8614169
3.2522697 0.56000847 0.089643933 6381921
1.7809519 0.55996698 2.8164606 5392144
1.8293079 0.55996835 2.7307172 8417049
1.8813603 0.55996972 2.6445813 8614170
1.9299079 0.55997121 2.5565 8614170
1.9800172 0.55997247 2.4717276 8614426
2.0303349 0.55997396 2.3845887 6970133
3.3801723 0.56000948 0.046978906 6776679
1.9129126 0.55996799 2.7782929 5457937
1.9625957 0.55996937 2.6922555 5655313
2.0122783 0.5599708 2.6062169 5655313
2.0619614 0.55997223 2.5201783 7430678
2.111645 0.55997354 2.434139 8285464
3.4643788 0.56000906 0.091522671 6052956
2.2498136 0.55997455 2.3954198 6575892
3.6008794 0.56001008 0.058200881 7171437
3.6960926 0.5600096 0.11038593 4605510
3.7443814 0.56001085 0.026762303 5395026
3.8212652 0.56001055 0.065986849 7105644
3.8977311 0.56001014 0.11641458 4013373
3.9486547 0.56001151 0.028228378 4276545
1.4108434 0.55993861 4.7493386 6902784
1.4980391 0.55993915 4.737988 5719552
1.5609664 0.55993891 4.7741933 4667648
1.610866 0.55994022 4.6877828 3944448
1.711953 0.55993986 4.7424073 5193472
1.8688005 0.55994093 4.7133236 4799232
1.6018978 0.5599311 5.3464422 4996096
1.9421034 0.55994058 4.7573252 5061888
1.667868 0.55993044 5.4106531 4273152
2.0678594 0.55994165 4.7180128 4667648
1.7997218 0.55993158 5.3687973 4141824
2.152076 0.55994135 4.7586508 4930560
2.2852225 0.55994236 4.7231336 4470272
2.3719282 0.55994183 4.7772121 4207360
2.5134163 0.5599429 4.7462735 4470528
2.6618915 0.55994397 4.7138057 3944448
2.7647188 0.55994356 4.7717562 4076032
5.4623628 0.56001538 0.10052603 4605510
2.9201622 0.55994445 4.7508569 4207616
5.6224337 0.56001621 0.071644351 5066061
4.4355197 0.55998176 2.3884187 4010240
5.7350254 0.56001574 0.13822044 4013373
5.7835736 0.56001699 0.054155737 4210752
2.8538444 0.55993509 5.4030147 4273408
4.5570369 0.55998129 2.4538529 5193472
4.6069088 0.5599826 2.367496 5127680
5.9036641 0.56001651 0.12207576 4473924
2.9815505 0.55993456 5.4732494 4996352
3.0288758 0.55993593 5.391304 5785088
4.7327323 0.559982 2.4410138 7165696
4.7800655 0.55998325 2.3590543 6310912
4.8313432 0.55998462 2.2702641 4207360
6.0818048 0.56001729 0.10502245 4408131
3.0152071 0.55993128 5.7232223 4404480
3.0679622 0.55993271 5.631876 4273152
4.8617921 0.55998129 2.5258217 4076032
4.9145555 0.55998272 2.4344585 7823104
4.96732 0.55998403 2.3430953 5325056
6.2662139 0.56001806 0.094008982 4473924
5.1072335 0.55998337 2.4275117 4141568
5.3074603 0.55998403 2.4275978 4076032
4.7703166 0.55994159 5.4697161 4273152
12.41484 0.56002766 -2.134306 4142861
12.465134 0.56002927 -2.2213631 4668942
12.515425 0.5600307 -2.3084209 4734478
